# .PCD v0.7 - Point Cloud Data file format
VERSION 0.7
FIELDS x y z intensity ring
SIZE 4 4 4 4 2
TYPE F F F F U
COUNT 1 1 1 1 1
WIDTH 1268
HEIGHT 1
VIEWPOINT 0 0 0 1 0 0 0
POINTS 1268
DATA ascii
1.098802 -1.4588916 -0.38822284 0 14
1.2426144 -1.6498328 -0.38902751 0 15
1.4261552 -1.8935221 -0.38959745 0 16
1.8895652 -2.5087967 -0.44138891 0 17
2.2752621 -3.0208907 -0.44200054 0 18
2.8594637 -3.7965419 -0.44363931 0 19
3.7988694 -5.0438013 -0.44143438 0 20
4.1531043 -5.5141225 -0.32137492 0 21
4.1583362 -5.5210695 -0.16070411 0 22
4.147438 -5.5065999 0.00019680563 0 23
4.1588845 -5.5217977 0.16112021 0 24
4.1544728 -5.5159397 0.32187596 0 25
3.6904054 -4.8997922 0.42918265 0 26
3.6555381 -4.8534985 0.56749839 0 27
3.728126 -4.9498744 0.72459769 0 28
3.7236989 -4.9439964 0.87018973 0 29
3.7308993 -4.9535565 1.0195718 0 30
3.7254083 -4.9462662 1.1666863 0 31
0.5034759 -0.64888787 -0.38885722 0 4
0.53833926 -0.6938203 -0.39103082 0 5
0.57521057 -0.74134064 -0.39190724 0 6
0.62078792 -0.80008149 -0.39554054 0 7
0.66426522 -0.8561157 -0.39443105 0 8
0.71017975 -0.91529107 -0.39140913 0 9
0.7667467 -0.98819548 -0.39039826 0 10
0.83438599 -1.0753701 -0.39031628 0 11
0.91171473 -1.1750326 -0.38926938 0 12
0.99785453 -1.2860509 -0.38580436 0 13
1.1290207 -1.4551001 -0.39148381 0 14
1.2768881 -1.645674 -0.39232594 0 15
1.4589717 -1.8803463 -0.3911528 0 16
1.9364685 -2.4957519 -0.44393581 0 17
2.3144035 -2.9828405 -0.44124588 0 18
2.9057186 -3.7449369 -0.44243473 0 19
3.8787441 -4.9989882 -0.44233689 0 20
4.2831368 -5.5201759 -0.32527548 0 21
4.2879009 -5.5263157 -0.16263062 0 22
4.282558 -5.5194297 0.00019943947 0 23
4.2934713 -5.5334949 0.163242 0 24
4.285871 -5.5236998 0.32588318 0 25
3.7608535 -4.8470488 0.42924449 0 26
3.7114904 -4.7834287 0.56547302 0 27
3.7728012 -4.8624468 0.71964866 0 28
3.7876804 -4.8816233 0.86868626 0 29
3.7880414 -4.8820887 1.0159427 0 30
3.7916327 -4.8867173 1.1653509 0 31
0.51696521 -0.64689577 -0.39206752 0 4
0.54210621 -0.67835552 -0.38665834 0 5
0.58057916 -0.72649801 -0.38842392 0 6
0.63144767 -0.79015148 -0.39506921 0 7
0.66944957 -0.83770454 -0.39033324 0 8
0.72396785 -0.90592504 -0.39180505 0 9
0.78475809 -0.98199385 -0.39235559 0 10
0.84855419 -1.0618241 -0.38977802 0 11
0.93519491 -1.1702405 -0.39208615 0 12
1.0352515 -1.2954446 -0.39303738 0 13
1.1526105 -1.4422998 -0.3924484 0 14
1.2908336 -1.6152631 -0.38945073 0 15
1.4807751 -1.8529432 -0.38983133 0 16
1.9681418 -2.4628015 -0.44305152 0 17
2.367326 -2.9623139 -0.44318777 0 18
2.9650321 -3.7102432 -0.44331571 0 19
3.9522038 -4.9455237 -0.4425776 0 20
4.4168448 -5.5269451 -0.32937422 0 21
4.4168086 -5.5268993 -0.16449559 0 22
4.4123249 -5.5212889 0.00020177317 0 23
4.4145198 -5.524035 0.16481429 0 24
4.4164596 -5.5264626 0.32975027 0 25
3.8321135 -4.7952509 0.42948177 0 26
3.781687 -4.732151 0.56576651 0 27
3.8395851 -4.8046007 0.71916574 0 28
3.8442585 -4.8104486 0.86574566 0 29
3.8361018 -4.8002419 1.0102589 0 30
3.8352757 -4.7992082 1.1574844 0 31
0.55984908 -0.68031317 -0.39231187 0 5
0.59533787 -0.72343814 -0.39131406 0 6
0.62703335 -0.76195371 -0.38542861 0 7
0.68498641 -0.83237666 -0.39238921 0 8
0.7332834 -0.89106584 -0.38988817 0 9
0.80440074 -0.9774856 -0.3951245 0 10
0.85990095 -1.044928 -0.38806424 0 11
0.94794947 -1.1519221 -0.3904649 0 12
1.0399598 -1.2637305 -0.38790199 0 13
1.1635286 -1.413888 -0.3892194 0 14
1.3159854 -1.5991492 -0.39007738 0 15
1.5141118 -1.8399068 -0.39161831 0 16
1.9979939 -2.4279072 -0.44188517 0 17
2.4026039 -2.9195781 -0.44190538 0 18
3.0166843 -3.6657917 -0.44312993 0 19
4.0262046 -4.8925328 -0.44295883 0 20
4.5452905 -5.5233121 -0.33300945 0 21
4.5547347 -5.5347881 -0.16665801 0 22
4.5572281 -5.537818 0.00020474539 0 23
4.5503249 -5.5294294 0.16690575 0 24
4.5503731 -5.5294881 0.33379158 0 25
3.9019351 -4.7415242 0.42963919 0 26
3.8602726 -4.690897 0.56739706 0 27
3.8557703 -4.6854258 0.70953411 0 28
3.8584521 -4.6886849 0.85370588 0 29
3.8538375 -4.6830773 0.99713373 0 30
3.8624408 -4.6935315 1.1452435 0 31
0.54004437 -0.63738787 -0.39553532 0 4
0.57199633 -0.67509919 -0.39399666 0 5
0.59784341 -0.70560515 -0.38626754 0 6
0.64759308 -0.76432222 -0.39128599 0 7
0.68987656 -0.8142274 -0.38845912 0 8
0.75115442 -0.88655066 -0.39258733 0 9
0.81270427 -0.9591949 -0.39240348 0 10
0.89151096 -1.0522066 -0.39547655 0 11
0.96787322 -1.1423331 -0.39188093 0 12
1.0651667 -1.2571639 -0.3905367 0 13
1.1972034 -1.4130003 -0.39366263 0 14
1.3360313 -1.5768521 -0.38927379 0 15
1.5343567 -1.8109257 -0.39009488 0 16
1.797893 -2.1219647 -0.39085704 0 17
2.4504712 -2.8921707 -0.44303247 0 18
3.0706382 -3.6241233 -0.4433724 0 19
4.1034117 -4.8430548 -0.44376338 0 20
4.6847172 -5.5291414 -0.33737826 0 21
4.6801643 -5.5237679 -0.16833059 0 22
4.6912637 -5.5368681 0.00020717725 0 23
4.6858115 -5.5304327 0.16894779 0 24
4.6860614 -5.5307279 0.33788985 0 25
3.9762349 -4.6929545 0.43036276 0 26
3.9548035 -4.6676602 0.57139027 0 27
4.0492773 -4.7791629 0.73245084 0 28
4.0534191 -4.7840509 0.8815673 0 29
4.0482244 -4.7779202 1.0295879 0 30
4.0565982 -4.7878032 1.1823248 0 31
0.54003453 -0.61914533 -0.3889825 0 4
0.57772452 -0.66235662 -0.39135674 0 5
0.61049813 -0.69993132 -0.38791615 0 6
0.65610909 -0.75222391 -0.38987094 0 7
0.70960552 -0.81355715 -0.39295575 0 8
0.76112473 -0.8726235 -0.39121509 0 9
0.8186214 -0.93854302 -0.38871932 0 10
0.89349848 -1.024389 -0.38979888 0 11
0.98419338 -1.12837 -0.39189419 0 12
1.0847501 -1.2436575 -0.39113501 0 13
1.2122 -1.3897778 -0.39199746 0 14
1.3512987 -1.5492533 -0.38720647 0 15
1.5658841 -1.7952739 -0.39152208 0 16
1.8283 -2.0961316 -0.39088976 0 17
2.4883161 -2.8528347 -0.44242963 0 18
3.1209834 -3.5781827 -0.44318411 0 19
4.163887 -4.7738638 -0.44285142 0 20
4.8255219 -5.532423 -0.34176752 0 21
4.828969 -5.536375 -0.17080835 0 22
4.8295302 -5.5370188 0.00020975381 0 23
4.8314314 -5.5391979 0.17131534 0 24
4.8299289 -5.5374756 0.34250006 0 25
4.0335321 -4.624413 0.42933959 0 26
4.0656633 -4.6612511 0.57768625 0 27
4.1718445 -4.7829871 0.74213308 0 28
4.1720176 -4.7831855 0.89234513 0 29
4.1743507 -4.7858601 1.0440961 0 30
4.169487 -4.7802839 1.1951163 0 31
0.55178577 -0.61459333 -0.39105576 0 4
0.59158766 -0.65892571 -0.39430359 0 5
0.62473875 -0.69585025 -0.39058143 0 6
0.66612697 -0.7419495 -0.38945875 0 7
0.71513635 -0.79653746 -0.3896504 0 8
0.77082115 -0.85856062 -0.38982797 0 9
0.83991253 -0.93551636 -0.392416 0 10
0.91402507 -1.0180649 -0.3923417 0 11
0.99650651 -1.1099348 -0.39041647 0 12
1.1001047 -1.2253251 -0.39029285 0 13
1.2320515 -1.3722908 -0.39201024 0 14
1.3828982 -1.540308 -0.38988909 0 15
1.576387 -1.7558209 -0.38781011 0 16
1.8554486 -2.0666468 -0.39031512 0 17
2.5234897 -2.8107283 -0.4414686 0 18
3.1576571 -3.5170805 -0.44118154 0 19
4.225678 -4.7066698 -0.44219631 0 20
4.9733615 -5.5394592 -0.3465741 0 21
4.9746399 -5.5408831 -0.17313142 0 22
4.9728565 -5.5388966 0.00021250563 0 23
4.9718556 -5.5377822 0.17345969 0 24
4.9658003 -5.5310373 0.34647253 0 25
4.0991836 -4.5657768 0.42931134 0 26
4.1923566 -4.6695557 0.5861091 0 27
4.3019748 -4.7916508 0.752976 0 28
4.301899 -4.7915664 0.90532917 0 29
4.2919588 -4.7804952 1.05625 0 30
4.2926879 -4.7813072 1.210644 0 31
0.56000608 -0.60603148 -0.39067966 0 4
0.59495658 -0.64385444 -0.39035234 0 5
0.63829154 -0.69075102 -0.39281866 0 6
0.67653286 -0.7321353 -0.38936168 0 7
0.73497993 -0.79538596 -0.39420456 0 8
0.78844541 -0.85324562 -0.39251015 0 9
0.84251153 -0.91175532 -0.38747922 0 10
0.92681277 -1.0029851 -0.39161405 0 11
1.0174119 -1.1010303 -0.39237806 0 12
1.1167946 -1.208581 -0.39002264 0 13
1.2501106 -1.3528539 -0.39154071 0 14
1.4216683 -1.5385114 -0.39455631 0 15
1.6112728 -1.743699 -0.39019817 0 16
1.8857698 -2.0407562 -0.39049459 0 17
2.5567992 -2.7669356 -0.44030619 0 18
3.2324853 -3.4981546 -0.44457886 0 19
4.3015966 -4.6551337 -0.44310668 0 20
5.1157846 -5.5362372 -0.35092813 0 21
5.1285748 -5.5500789 -0.17569964 0 22
5.1202974 -5.541121 0.00021538707 0 23
5.1128421 -5.5330529 0.17559102 0 24
5.1162257 -5.536715 0.3513898 0 25
4.1729507 -4.5159144 0.43020767 0 26
4.327035 -4.6826625 0.59548467 0 27
4.4296904 -4.7937551 0.76321441 0 28
4.4222684 -4.7857227 0.91611779 0 29
4.425355 -4.789063 1.0720601 0 30
4.4276299 -4.7915249 1.2291882 0 31
0.5624364 -0.59141088 -0.38641629 0 4
0.59661967 -0.62735516 -0.38549879 0 5
0.64460152 -0.67780882 -0.39067739 0 6
0.69089961 -0.72649205 -0.39159149 0 7
0.74584413 -0.78426713 -0.39395642 0 8
0.79387045 -0.83476752 -0.38920897 0 9
0.85241687 -0.89633006 -0.3860811 0 10
0.93897265 -0.98734486 -0.39072677 0 11
1.0283774 -1.0813555 -0.39058393 0 12
1.1409913 -1.1997707 -0.39242148 0 13
1.2681751 -1.3335066 -0.39116651 0 14
1.4192168 -1.4923292 -0.3878943 0 15
1.6457874 -1.7305719 -0.39250377 0 16
1.9222873 -2.0213161 -0.39201131 0 17
2.6094809 -2.743911 -0.44255397 0 18
3.270009 -3.4384673 -0.44290969 0 19
4.3676019 -4.5926037 -0.44307333 0 20
5.2774115 -5.549283 -0.35651752 0 21
5.2804627 -5.5524912 -0.17815585 0 22
5.2743506 -5.5460644 0.00021849797 0 23
5.2726498 -5.5442762 0.17832935 0 24
5.2852349 -5.5575094 0.35748488 0 25
4.3058167 -4.5276351 0.43716398 0 26
4.4517426 -4.6810789 0.60334283 0 27
4.5644445 -4.7995868 0.77448869 0 28
4.5596266 -4.7945209 0.93022811 0 29
4.5593357 -4.7942147 1.0877438 0 30
4.5577207 -4.7925162 1.2460879 0 31
0.58177465 -0.594432 -0.39380297 0 4
0.61082876 -0.62411821 -0.3888545 0 5
0.65167367 -0.66585177 -0.38913414 0 6
0.70318276 -0.71848148 -0.39267084 0 7
0.75666994 -0.77313238 -0.39377555 0 8
0.8100754 -0.82769978 -0.39129186 0 9
0.88961744 -0.90897238 -0.39698306 0 10
0.95639181 -0.97719949 -0.39210126 0 11
1.0522324 -1.0751252 -0.39374557 0 12
1.1558552 -1.1810025 -0.39166614 0 13
1.288448 -1.3164799 -0.39155382 0 14
1.4547855 -1.4864364 -0.39174712 0 15
1.6491596 -1.6850394 -0.38750288 0 16
1.9522738 -1.9947484 -0.39225021 0 17
2.659353 -2.717211 -0.44435522 0 18
3.3233273 -3.3956311 -0.44348761 0 19
4.4295421 -4.5259132 -0.4427245 0 20
5.4232221 -5.5412121 -0.36096033 0 21
5.4215355 -5.5394888 -0.18021567 0 22
5.4261298 -5.5441833 0.00022146788 0 23
5.4263248 -5.5443826 0.18081808 0 24
5.4271564 -5.5452318 0.36166617 0 25
4.4269385 -4.523253 0.4428274 0 26
4.5823627 -4.6820588 0.61187929 0 27
4.6863689 -4.7883277 0.78344005 0 28
4.6947474 -4.7968884 0.94365788 0 29
4.6897302 -4.7917619 1.1023387 0 30
4.6859159 -4.7878647 1.2622275 0 31
0.58264101 -0.57847899 -0.38873184 0 4
0.62731153 -0.62283045 -0.39361876 0 5
0.66939068 -0.66460896 -0.39397952 0 6
0.70753217 -0.70247799 -0.38943189 0 7
0.76549309 -0.76002491 -0.39265254 0 8
0.82546246 -0.81956589 -0.39300454 0 9
0.88436282 -0.8780455 -0.38897708 0 10
0.96586376 -0.95896423 -0.39030412 0 11
1.060195 -1.0526217 -0.3910341 0 12
1.168826 -1.1604767 -0.39037982 0 13
1.2996082 -1.2903247 -0.38927987 0 14
1.4744895 -1.4639566 -0.39135727 0 15
1.6842686 -1.6722373 -0.39007533 0 16
1.9646817 -1.9506474 -0.38908055 0 17
2.6856606 -2.666476 -0.44231361 0 18
3.365665 -3.3416228 -0.44269449 0 19
4.4867148 -4.4546647 -0.4420059 0 20
5.589767 -5.5498371 -0.36670822 0 21
5.5893922 -5.5494652 -0.1831301 0 22
5.5830221 -5.5431404 0.0002246026 0 23
5.5923305 -5.5523825 0.18367656 0 24
5.5873437 -5.547431 0.36699978 0 25
4.5708966 -4.5382452 0.45066857 0 26
4.7294221 -4.6956382 0.62245679 0 27
4.8296375 -4.7951379 0.79580879 0 28
4.8267994 -4.7923198 0.95628303 0 29
4.8349972 -4.8004589 1.1201812 0 30
4.8349314 -4.8003941 1.2836847 0 31
0.58930457 -0.56854254 -0.38769591 0 4
0.62202841 -0.60011345 -0.38486204 0 5
0.67460465 -0.65083736 -0.39151257 0 6
0.72895491 -0.70327276 -0.3956292 0 7
0.77563167 -0.74830508 -0.39230609 0 8
0.82657743 -0.79745591 -0.38804862 0 9
0.89914536 -0.86746722 -0.38996518 0 10
0.98140293 -0.9468267 -0.39105421 0 11
1.0747769 -1.036911 -0.3908855 0 12
1.1900172 -1.1480912 -0.3919161 0 13
1.3239361 -1.277292 -0.39103791 0 14
1.4924108 -1.439831 -0.39059123 0 15
1.7144635 -1.6540605 -0.39153242 0 16
1.9940329 -1.9237803 -0.38938749 0 17
2.7253339 -2.6293166 -0.44258964 0 18
3.4080608 -3.2879899 -0.44202101 0 19
4.5552683 -4.3947797 -0.44250268 0 20
6.8451009 -6.6039386 -0.44280159 0 21
7.4646873 -7.2016959 -0.24116215 0 22
7.4631891 -7.2002501 0.00029605487 0 23
7.4666276 -7.203568 0.24181753 0 24
7.3853745 -7.1251774 0.47833848 0 25
4.7146425 -4.5485392 0.45836034 0 26
4.8706722 -4.6990714 0.63210964 0 27
4.9270086 -4.7534227 0.80053413 0 28
4.9369698 -4.7630334 0.96447295 0 29
4.9314094 -4.757669 1.1265889 0 30
4.9338236 -4.7599978 1.2916772 0 31
0.60986567 -0.57171696 -0.39578608 0 4
0.63538772 -0.59564257 -0.38780075 0 5
0.67543519 -0.63318497 -0.38668293 0 6
0.73016566 -0.68449193 -0.39091653 0 7
0.79297549 -0.7433728 -0.39564365 0 8
0.84440076 -0.79158127 -0.39104447 0 9
0.91120076 -0.85420275 -0.38983867 0 10
0.99226058 -0.93019211 -0.39002305 0 11
1.0881007 -1.0200371 -0.39036891 0 12
1.2088932 -1.1332738 -0.39273784 0 13
1.3363976 -1.2528025 -0.38936999 0 14
1.5167851 -1.4219064 -0.39159137 0 15
1.723758 -1.6159325 -0.38832089 0 16
2.0276926 -1.9008551 -0.39059502 0 17
2.7734818 -2.5999932 -0.4443056 0 18
3.4499435 -3.2341406 -0.44139004 0 19
4.6181173 -4.3292418 -0.44252911 0 20
6.9345212 -6.5007486 -0.44250759 0 21
7.690269 -7.2092228 -0.24508345 0 22
7.6951303 -7.2137799 0.00030111941 0 23
7.6900625 -7.2090292 0.24567904 0 24
7.6035991 -7.127974 0.48579937 0 25
4.8541188 -4.5504813 0.46552563 0 26
7.601666 -7.1261621 0.97316664 0 27
7.602304 -7.1267605 1.2184753 0 28
7.598505 -7.123199 1.4643087 0 29
7.6046271 -7.1289377 1.7137493 0 30
7.6952019 -7.2138472 1.9873089 0 31
0.61107361 -0.55659723 -0.39134768 0 4
0.65374476 -0.59546429 -0.39375031 0 5
0.69281584 -0.63105226 -0.39141005 0 6
0.74691147 -0.68032533 -0.39461595 0 7
0.79584283 -0.72489452 -0.39184529 0 8
0.86080593 -0.78406626 -0.39339215 0 9
0.92606884 -0.8435111 -0.39098221 0 10
1.0077524 -0.91791266 -0.39089605 0 11
1.1036133 -1.0052277 -0.39072028 0 12
1.2186196 -1.1099813 -0.39068419 0 13
1.3703945 -1.2482256 -0.39401725 0 14
1.5378509 -1.4007535 -0.39180154 0 15
1.7660596 -1.6086179 -0.39261121 0 16
2.0559738 -1.8726866 -0.39082748 0 17
2.7938004 -2.5447369 -0.44166678 0 18
3.5181196 -3.204484 -0.44418514 0 19
4.6843486 -4.2667451 -0.44296455 0 20
7.0323458 -6.4054217 -0.44284052 0 21
7.9166389 -7.2108812 -0.24897525 0 22
7.9154449 -7.2097936 0.00030566164 0 23
7.9156609 -7.20999 0.24955615 0 24
7.8260403 -7.1283593 0.49342674 0 25
5.0095611 -4.5629654 0.47410631 0 26
7.8265843 -7.1288552 0.98876619 0 27
7.8262906 -7.1285877 1.2378566 0 28
7.8273377 -7.1295409 1.4885433 0 29
7.8320327 -7.1338177 1.7417537 0 30
7.9151034 -7.2094827 2.0171807 0 31
0.62081486 -0.54938477 -0.39249825 0 4
0.66032487 -0.5843488 -0.3926239 0 5
0.70740843 -0.62601501 -0.3945398 0 6
0.74018425 -0.6550197 -0.38605729 0 7
0.80792326 -0.71496475 -0.39270267 0 8
0.86257321 -0.76332676 -0.38915518 0 9
0.9352746 -0.82766324 -0.38981566 0 10
1.0335829 -0.91466039 -0.39578485 0 11
1.1129459 -0.98489189 -0.388982 0 12
1.2400073 -1.0973338 -0.39245361 0 13
1.3881321 -1.2284156 -0.39400965 0 14
1.5514973 -1.3729843 -0.39021987 0 15
1.773051 -1.5690463 -0.38912126 0 16
2.0766885 -1.8377477 -0.38971332 0 17
2.8453698 -2.5179856 -0.44406289 0 18
3.5581946 -3.1487939 -0.44349584 0 19
4.7559276 -4.2087173 -0.44397795 0 20
7.1122479 -6.2939229 -0.44214064 0 21
8.1600027 -7.2211242 -0.25334483 0 22
8.1622438 -7.2231073 0.00031115842 0 23
8.1672888 -7.227572 0.25419408 0 24
8.1542568 -7.2160397 0.50754136 0 25
8.1606407 -7.2216887 0.76244187 0 26
8.1611004 -7.222096 1.0178329 0 27
8.1589298 -7.2201748 1.2739546 0 28
8.1648149 -7.2253833 1.5328518 0 29
8.1572742 -7.2187099 1.7908685 0 30
8.151432 -7.2135396 2.0508246 0 31
0.62833923 -0.54017138 -0.39231563 0 4
0.665232 -0.57188743 -0.39062321 0 5
0.71027255 -0.61060792 -0.39121133 0 6
0.76617682 -0.65866774 -0.39464512 0 7
0.80600846 -0.69291025 -0.38690037 0 8
0.87915671 -0.75579441 -0.39170483 0 9
0.95013601 -0.81681401 -0.39108548 0 10
1.0344461 -0.88929379 -0.39118978 0 11
1.1355428 -0.97620469 -0.39194465 0 12
1.250622 -1.0751362 -0.39089125 0 13
1.3862997 -1.1917757 -0.38859659 0 14
1.5708396 -1.3504212 -0.39017189 0 15
1.8028845 -1.5499057 -0.39074859 0 16
2.1180453 -1.8208436 -0.3925319 0 17
2.8621857 -2.460567 -0.44113281 0 18
3.6028936 -3.0973396 -0.44348308 0 19
4.7976851 -4.1244793 -0.44230694 0 20
7.2007351 -6.1903358 -0.44207522 0 21
8.4036655 -7.2244725 -0.25766551 0 22
8.4140663 -7.2334137 0.00031676979 0 23
8.4168653 -7.2358198 0.2587043 0 24
8.4171619 -7.2360754 0.51739055 0 25
8.4081278 -7.2283087 0.77579606 0 26
8.3944464 -7.2165465 1.0339167 0 27
8.4130707 -7.2325578 1.297302 0 28
8.4056454 -7.2261748 1.5584421 0 29
8.4077215 -7.2279596 1.8228997 0 30
8.3486328 -7.1771622 2.0743203 0 31
0.63219112 -0.52790254 -0.38995188 0 4
0.66231185 -0.55305445 -0.38420999 0 5
0.71699828 -0.5987196 -0.39014471 0 6
0.7609843 -0.63544953 -0.38723505 0 7
0.81867403 -0.68362254 -0.38823238 0 8
0.88908648 -0.74241948 -0.39134327 0 9
0.95176286 -0.79475653 -0.38702223 0 10
1.0338894 -0.86333519 -0.38625577 0 11
1.1435742 -0.95492601 -0.38994813 0 12
1.261591 -1.0534742 -0.38955578 0 13
1.4062228 -1.174247 -0.38941908 0 14
1.5943826 -1.3313674 -0.3912352 0 15
1.8191229 -1.5190337 -0.38950476 0 16
2.1376247 -1.7849942 -0.39137438 0 17
2.5580809 -2.1360903 -0.38949963 0 18
3.6425853 -3.0416908 -0.44295192 0 19
4.8651338 -4.0625634 -0.44310638 0 20
7.2991748 -6.0950761 -0.44270492 0 21
8.4861631 -7.0862546 -0.2570515 0 22
8.4929886 -7.0919538 0.00031587813 0 23
8.4851074 -7.0853729 0.25765103 0 24
8.484458 -7.0848303 0.51522642 0 25
8.4857702 -7.0859265 0.77350086 0 26
8.4883995 -7.0881219 1.0328579 0 27
8.4815922 -7.0824375 1.2920675 0 28
8.4895401 -7.0890741 1.5549806 0 29
8.4773779 -7.078918 1.8157966 0 30
8.452322 -7.0579953 2.0747113 0 31
0.64004105 -0.51905727 -0.39016062 0 4
0.68039656 -0.55178457 -0.39006874 0 5
0.72424495 -0.58734453 -0.38946283 0 6
0.77279633 -0.62671846 -0.38863054 0 7
0.82848299 -0.67187893 -0.38827309 0 8
0.89565176 -0.72635114 -0.3896063 0 9
0.96758574 -0.78468782 -0.38883877 0 10
1.0673876 -0.86562467 -0.3940905 0 11
1.1580306 -0.93913382 -0.39024329 0 12
1.2756964 -1.0345578 -0.38928831 0 13
1.4347523 -1.1635482 -0.39265665 0 14
1.617099 -1.3114268 -0.39215243 0 15
1.8504002 -1.5006282 -0.39155191 0 16
2.1624787 -1.7537161 -0.39127824 0 17
2.5955229 -2.1049042 -0.39056253 0 18
3.681211 -2.9853699 -0.4423953 0 19
4.9046826 -3.9775748 -0.4414658 0 20
7.3911953 -5.9940743 -0.44302493 0 21
8.4962807 -6.8902712 -0.25433758 0 22
8.4878254 -6.8834138 0.00031198119 0 23
8.4954195 -6.8895721 0.25493667 0 24
8.4957409 -6.889833 0.50985682 0 25
8.4845715 -6.880775 0.76431495 0 26
8.4831791 -6.8796458 1.0201083 0 27
8.4819527 -6.8786511 1.2769579 0 28
8.4880362 -6.8835845 1.536459 0 29
8.4818602 -6.8785763 1.7954351 0 30
8.4985237 -6.8920898 2.0615699 0 31
0.65262997 -0.51392466 -0.39329979 0 4
0.68875331 -0.54237056 -0.39035869 0 5
0.73969007 -0.58248156 -0.39323434 0 6
0.78717047 -0.61987084 -0.39134678 0 7
0.83769095 -0.65965402 -0.38811338 0 8
0.90621746 -0.71361643 -0.38970891 0 9
0.9795267 -0.77134502 -0.38915038 0 10
1.0692645 -0.84201062 -0.39028338 0 11
1.1643871 -0.91691649 -0.38791263 0 12
1.3018409 -1.0251569 -0.39273813 0 13
1.4422407 -1.1357172 -0.39020684 0 14
1.623317 -1.2783086 -0.38917303 0 15
1.8646203 -1.468327 -0.39006338 0 16
2.1841984 -1.7199843 -0.39070326 0 17
2.6267781 -2.0685012 -0.39076009 0 18
3.7346177 -2.9408884 -0.44369757 0 19
4.9712062 -3.9146614 -0.44235307 0 20
7.4603701 -5.8747959 -0.442074 0 21
8.4980154 -6.6919074 -0.25148976 0 22
8.5021524 -6.6951652 0.00030894557 0 23
8.5020943 -6.6951189 0.25222868 0 24
8.4871187 -6.6833267 0.50353348 0 25
8.5014181 -6.6945868 0.75710291 0 26
8.4874716 -6.6836042 1.0089906 0 27
8.4972029 -6.6912675 1.2646718 0 28
8.4887943 -6.6846457 1.5190808 0 29
8.4930162 -6.6879706 1.7773038 0 30
8.4954014 -6.6898489 2.0373216 0 31
0.65161669 -0.49815077 -0.38834238 0 4
0.70495325 -0.53892577 -0.39511761 0 5
0.73981339 -0.56557578 -0.38894635 0 6
0.79828858 -0.6102792 -0.39248115 0 7
0.86424005 -0.66069806 -0.3959817 0 8
0.91321135 -0.69813579 -0.38836947 0 9
0.99518871 -0.7608062 -0.39099619 0 10
1.0846603 -0.82920587 -0.39152053 0 11
1.1877729 -0.90803385 -0.39132342 0 12
1.3137745 -1.0043601 -0.39195108 0 13
1.4692645 -1.1232297 -0.39311805 0 14
1.649386 -1.2609298 -0.39104578 0 15
1.8876898 -1.4431094 -0.39051822 0 16
2.2133722 -1.6920885 -0.39153925 0 17
2.6621084 -2.0351403 -0.39163223 0 18
3.7585998 -2.8733907 -0.44160387 0 19
5.0253696 -3.8418164 -0.4422228 0 20
7.5561094 -5.7765279 -0.44279099 0 21
8.4988651 -6.4972491 -0.24873082 0 22
8.4926853 -6.4925251 0.00030518556 0 23
8.4954796 -6.4946613 0.24924265 0 24
8.5055895 -6.5023904 0.49904349 0 25
8.4848938 -6.4865685 0.74726707 0 26
8.5005779 -6.498559 0.99936271 0 27
8.4994755 -6.4977164 1.2510073 0 28
8.4999113 -6.4980497 1.5042331 0 29
8.4897661 -6.490294 1.7569579 0 30
8.4978294 -6.4964576 2.0153458 0 31
0.67619449 -0.50173658 -0.39865917 0 4
0.70469588 -0.52288461 -0.39072871 0 5
0.75093567 -0.55719453 -0.39055106 0 6
0.79269636 -0.58818096 -0.38554338 0 7
0.85327387 -0.63312954 -0.38675565 0 8
0.91948873 -0.68226099 -0.38683677 0 9
1.0097307 -0.74922049 -0.39244622 0 10
1.0946919 -0.8122617 -0.39089507 0 11
1.2084577 -0.89667606 -0.39385957 0 12
1.3176458 -0.97769362 -0.38888147 0 13
1.4710549 -1.0915232 -0.38936725 0 14
1.6548856 -1.2279257 -0.3881332 0 15
1.9146295 -1.4206557 -0.39183474 0 16
2.2404578 -1.6624205 -0.3920714 0 17
2.6828976 -1.990711 -0.39044902 0 18
3.8094218 -2.8265924 -0.44276509 0 19
5.0772781 -3.7673423 -0.44198918 0 20
7.6360245 -5.6659327 -0.44266516 0 21
8.4977493 -6.3053327 -0.24602549 0 22
8.4970665 -6.3048267 0.00030206161 0 23
8.5119295 -6.315855 0.24704157 0 24
8.515624 -6.3185959 0.49426284 0 25
8.5152187 -6.3182955 0.74187845 0 26
8.4927292 -6.3016081 0.98771006 0 27
8.4992323 -6.3064337 1.2375278 0 28
8.5020742 -6.3085423 1.4884464 0 29
8.5041494 -6.310082 1.741021 0 30
8.490922 -6.3002667 1.9920671 0 31
0.66931295 -0.48189861 -0.39048597 0 4
0.70671147 -0.50882518 -0.38775897 0 5
0.75113875 -0.54081237 -0.38658175 0 6
0.80752677 -0.58141118 -0.38865963 0 7
0.87756091 -0.63183504 -0.39361495 0 8
0.93273419 -0.67155921 -0.38831604 0 9
1.0106424 -0.72765237 -0.38870329 0 10
1.1123776 -0.8009007 -0.39306706 0 11
1.2188241 -0.87754112 -0.3930946 0 12
1.3345103 -0.96083403 -0.38975045 0 13
1.5030642 -1.0821911 -0.39368981 0 14
1.6833416 -1.211989 -0.39068899 0 15
1.9189457 -1.3816216 -0.38862166 0 16
2.2726767 -1.6363044 -0.39356109 0 17
2.7135615 -1.953737 -0.39079231 0 18
3.8458991 -2.7690086 -0.44234213 0 19
5.1412272 -3.7016318 -0.44288766 0 20
7.7203412 -5.558568 -0.44288465 0 21
8.5045452 -6.1231871 -0.24365392 0 22
8.5156002 -6.1311464 0.00029956279 0 23
8.5181732 -6.1329989 0.24464399 0 24
8.5035038 -6.1224375 0.48841107 0 25
8.4968672 -6.1176596 0.73255783 0 26
8.5077515 -6.1254959 0.97913623 0 27
8.5020933 -6.1214218 1.2250315 0 28
8.5037699 -6.1226292 1.4732143 0 29
8.5135851 -6.1296954 1.724772 0 30
8.5050707 -6.1235657 1.9745729 0 31
0.68197417 -0.47631094 -0.39384556 0 4
0.72535837 -0.50661176 -0.39396182 0 5
0.774607 -0.54100847 -0.39462483 0 6
0.82070565 -0.57320511 -0.39100447 0 7
0.87238365 -0.60929859 -0.38733226 0 8
0.95785683 -0.66899556 -0.39473882 0 9
1.0215737 -0.71349728 -0.38893071 0 10
1.1185468 -0.78122628 -0.39124647 0 11
1.2189957 -0.85138267 -0.38917059 0 12
1.3573009 -0.94797909 -0.39239424 0 13
1.510921 -1.055272 -0.39174208 0 14
1.6962397 -1.1847041 -0.38969782 0 15
1.9580922 -1.3675896 -0.39253581 0 16
2.271759 -1.5866637 -0.38942027 0 17
2.7531307 -1.922868 -0.39247772 0 18
3.8876672 -2.7152619 -0.44262031 0 19
5.1845417 -3.6210375 -0.44209844 0 20
7.7935781 -5.4432654 -0.4425607 0 21
8.5103874 -5.9439068 -0.24135344 0 22
8.5162191 -5.9479799 0.00029655229 0 23
8.5155611 -5.9475203 0.24209355 0 24
8.5094986 -5.9432859 0.4838084 0 25
8.512579 -5.9454374 0.726484 0 26
8.5238266 -5.9532928 0.97105706 0 27
8.5031309 -5.938838 1.21278 0 28
8.5135889 -5.9461427 1.4599867 0 29
8.5051517 -5.9402499 1.7056234 0 30
8.5185709 -5.9496226 1.9576894 0 31
0.67690343 -0.45846468 -0.38707894 0 4
0.722004 -0.48901117 -0.38828975 0 5
0.77683097 -0.52614534 -0.39187211 0 6
0.83152133 -0.56318694 -0.39226767 0 7
0.89411491 -0.6055814 -0.39308301 0 8
0.95971531 -0.65001231 -0.39162144 0 9
1.0427631 -0.70626032 -0.39309993 0 10
1.1403215 -0.77233636 -0.39494658 0 11
1.2406772 -0.840307 -0.39220351 0 12
1.365635 -0.92494059 -0.39092726 0 13
1.5187873 -1.0286702 -0.38991526 0 14
1.728778 -1.1708963 -0.39327359 0 15
1.9780627 -1.3397361 -0.39264584 0 16
2.3030829 -1.5598712 -0.39091352 0 17
2.7632263 -1.8715249 -0.39004922 0 18
3.928519 -2.6607742 -0.44287983 0 19
5.2258563 -3.5394571 -0.44124609 0 20
7.8727193 -5.3321695 -0.44266534 0 21
8.5235176 -5.772953 -0.23935241 0 22
8.5151901 -5.767313 0.00029360509 0 23
8.5120764 -5.765204 0.23961844 0 24
8.5137796 -5.7663574 0.4792991 0 25
8.5189114 -5.7698331 0.71988606 0 26
8.5109634 -5.7644506 0.96007168 0 27
8.5257969 -5.774497 1.2040734 0 28
8.5212574 -5.7714224 1.4469539 0 29
8.5200367 -5.7705956 1.6918324 0 30
8.4996548 -5.7567911 1.9341632 0 31
0.69084305 -0.45358765 -0.39128882 0 4
0.72971582 -0.47911039 -0.38870063 0 5
0.78879297 -0.51789874 -0.39411777 0 6
0.83392507 -0.54753119 -0.38965595 0 7
0.89438903 -0.58723009 -0.38945976 0 8
0.96957988 -0.63659823 -0.39187974 0 9
1.0472698 -0.68760717 -0.39103991 0 10
1.1462721 -0.75260919 -0.39322755 0 11
1.2404675 -0.81445527 -0.38840359 0 12
1.3842742 -0.90887463 -0.39249003 0 13
1.5374045 -1.0094155 -0.39093685 0 14
1.7406262 -1.142845 -0.39219877 0 15
1.9999856 -1.3131329 -0.39321762 0 16
2.3220491 -1.5245905 -0.39038011 0 17
2.7988117 -1.8376191 -0.39131078 0 18
3.976604 -2.6109235 -0.44403231 0 19
5.295928 -3.4771538 -0.44290507 0 20
7.9448938 -5.2163882 -0.44247019 0 21
8.5087042 -5.5865703 -0.23666146 0 22
8.5184984 -5.5930009 0.00029092259 0 23
8.5053549 -5.5843711 0.23714957 0 24
8.5249357 -5.5972271 0.47535765 0 25
8.5285845 -5.5996227 0.71384156 0 26
8.5189333 -5.5932865 0.95182115 0 27
8.5124884 -5.5890546 1.1907475 0 28
8.5181112 -5.5927463 1.4326479 0 29
8.5197773 -5.5938406 1.675673 0 30
8.5298243 -5.6004367 1.9225476 0 31
0.70538223 -0.44878682 -0.39583629 0 4
0.74640578 -0.47488734 -0.39392138 0 5
0.77456445 -0.4928028 -0.38343665 0 6
0.84548408 -0.53792417 -0.39141083 0 7
0.90063679 -0.57301408 -0.38856071 0 8
0.98065311 -0.62392306 -0.39269713 0 9
1.0586286 -0.6735335 -0.39163291 0 10
1.1549536 -0.73481864 -0.39254898 0 11
1.260613 -0.80204248 -0.39106837 0 12
1.3906673 -0.88478726 -0.39066347 0 13
1.5567161 -0.9904328 -0.39219397 0 14
1.7581564 -1.1185956 -0.39249244 0 15
2.0057037 -1.2760931 -0.39070231 0 16
2.3565493 -1.4993124 -0.39252371 0 17
2.8155887 -1.791368 -0.3900232 0 18
4.0020237 -2.546216 -0.44274631 0 19
5.3352857 -3.3944802 -0.44207844 0 20
8.0202236 -5.1027241 -0.44254303 0 21
8.5240498 -5.423274 -0.23490007 0 22
8.519619 -5.4204555 0.00028827545 0 23
8.5156527 -5.417932 0.23524529 0 24
8.5235357 -5.4229469 0.47089303 0 25
8.5194597 -5.4203539 0.70649648 0 26
8.5258026 -5.4243898 0.94379675 0 27
8.5230799 -5.422657 1.1812254 0 28
8.5284586 -5.4260798 1.4211497 0 29
8.5369291 -5.4314685 1.6635498 0 30
8.5190592 -5.4200993 1.9023995 0 31
0.71363634 -0.43978626 -0.39688683 0 4
0.74484271 -0.45901752 -0.38958099 0 5
0.78790104 -0.4855527 -0.38655061 0 6
0.85614979 -0.52761173 -0.39280388 0 7
0.91381556 -0.56314892 -0.3907207 0 8
0.99285966 -0.61186069 -0.39402959 0 9
1.0805271 -0.6658867 -0.39615932 0 10
1.1550825 -0.71183228 -0.38908181 0 11
1.2749336 -0.78569186 -0.39197388 0 12
1.4019165 -0.8639465 -0.39030161 0 13
1.5723416 -0.96897286 -0.39258805 0 14
1.7740912 -1.0933032 -0.39250788 0 15
2.0367427 -1.2551652 -0.39320046 0 16
2.3669162 -1.4586382 -0.39072475 0 17
2.8460205 -1.7538915 -0.39071304 0 18
4.0415368 -2.4906418 -0.44311914 0 19
5.3920779 -3.3229275 -0.44278863 0 20
8.0999479 -4.9916821 -0.44294509 0 21
8.5266466 -5.2546396 -0.2328703 0 22
8.5270071 -5.2548618 0.00028594516 0 23
8.5261917 -5.2543592 0.23343001 0 24
8.5228662 -5.2523103 0.46664521 0 25
8.5297127 -5.2565298 0.70102096 0 26
8.5120764 -5.2456608 0.93385047 0 27
8.521307 -5.2513494 1.1704184 0 28
8.53547 -5.2600775 1.4095982 0 29
8.5303297 -5.2569098 1.6473981 0 30
8.5273266 -5.2550592 1.8872161 0 31
0.71125102 -0.42436075 -0.3921341 0 4
0.75342429 -0.449523 -0.39065626 0 5
0.80332488 -0.4792957 -0.39070401 0 6
0.85915029 -0.51260334 -0.39076632 0 7
0.92191797 -0.55005306 -0.39077079 0 8
0.99257463 -0.5922097 -0.39050454 0 9
1.0729721 -0.64017797 -0.38998204 0 10
1.1626841 -0.69370377 -0.38825014 0 11
1.2879145 -0.76842123 -0.39253515 0 12
1.4199208 -0.8471815 -0.39189011 0 13
1.5826911 -0.94429666 -0.39174935 0 14
1.7806014 -1.0623779 -0.39053601 0 15
2.0419676 -1.2183195 -0.39079472 0 16
2.383142 -1.4218777 -0.38999578 0 17
2.8649526 -1.7093451 -0.38990539 0 18
3.586153 -2.139642 -0.38978463 0 19
5.4436641 -3.2479074 -0.4431529 0 20
8.1811457 -4.8811979 -0.44351032 0 21
8.5344782 -5.0920105 -0.23106532 0 22
8.5405293 -5.0956206 0.00028391797 0 23
8.5266047 -5.0873127 0.23141937 0 24
8.531745 -5.0903797 0.46308526 0 25
8.5349169 -5.0922723 0.69537306 0 26
8.5240288 -5.0857759 0.9270618 0 27
8.5191908 -5.0828896 1.1599925 0 28
8.5189285 -5.0827332 1.394681 0 29
8.5265884 -5.0873032 1.632413 0 30
8.5202551 -5.0835242 1.8693185 0 31
0.72149956 -0.41655913 -0.39444906 0 4
0.7626403 -0.44031182 -0.39211917 0 5
0.81835747 -0.47248024 -0.39467794 0 6
0.87316751 -0.50412494 -0.39381179 0 7
0.92024976 -0.53130794 -0.38679308 0 8
1.005152 -0.58032644 -0.39213699 0 9
1.0927675 -0.63091141 -0.39384663 0 10
1.1809875 -0.68184537 -0.39105546 0 11
1.2878594 -0.7435481 -0.38922718 0 12
1.425357 -0.82293254 -0.39009193 0 13
1.5929568 -0.91969663 -0.3909843 0 14
1.800337 -1.039428 -0.3915537 0 15
2.0648158 -1.1921253 -0.39185399 0 16
2.4007993 -1.3861061 -0.3895911 0 17
2.8928342 -1.6701833 -0.39039886 0 18
3.628756 -2.0950692 -0.39110813 0 19
5.4874167 -3.1681705 -0.44296902 0 20
8.2403431 -4.7575779 -0.44297385 0 21
8.5383024 -4.9296055 -0.22923057 0 22
8.5390987 -4.9300652 0.00028149021 0 23
8.5325603 -4.92629 0.22963926 0 24
8.5486851 -4.9355998 0.46011412 0 25
8.5398884 -4.930521 0.68994409 0 26
8.5263643 -4.9227123 0.91954046 0 27
8.5412292 -4.9312949 1.1532419 0 28
8.531806 -4.9258547 1.3850774 0 29
8.5268612 -4.9229999 1.6187773 0 30
8.5459156 -4.934001 1.8592273 0 31
0.71916902 -0.40157011 -0.38998523 0 4
0.76864463 -0.42919636 -0.39200017 0 5
0.81479424 -0.45496544 -0.38977152 0 6
0.88556808 -0.49448419 -0.39616439 0 7
0.95159626 -0.531353 -0.39672357 0 8
1.0119339 -0.56504446 -0.39158008 0 9
1.0983307 -0.61328673 -0.39264026 0 10
1.1886259 -0.66370589 -0.39039174 0 11
1.3109941 -0.73203391 -0.39300475 0 12
1.4399996 -0.80406803 -0.3909021 0 13
1.5993426 -0.89304209 -0.38936698 0 14
1.8157662 -1.0138888 -0.39170563 0 15
2.071511 -1.1566919 -0.38993528 0 16
2.4385478 -1.3616382 -0.39250642 0 17
2.8989282 -1.6187057 -0.38804743 0 18
3.6533847 -2.0399797 -0.39056814 0 19
5.5280595 -3.0867622 -0.44262964 0 20
8.3007793 -4.6349955 -0.4426026 0 21
8.5467453 -4.7723384 -0.22759572 0 22
8.5352497 -4.7659192 0.0002790807 0 23
8.5377293 -4.7673039 0.22791424 0 24
8.5452089 -4.7714806 0.4561958 0 25
8.5292435 -4.7625656 0.68349379 0 26
8.5419416 -4.7696562 0.91374689 0 27
8.5361643 -4.7664299 1.1432076 0 28
8.5400782 -4.7686152 1.3751725 0 29
8.5392628 -4.7681603 1.6079799 0 30
8.5366621 -4.7667079 1.842147 0 31
0.73525929 -0.39682764 -0.39558271 0 4
0.7780717 -0.41993397 -0.39369497 0 5
0.81441879 -0.43955091 -0.38653561 0 6
0.87643361 -0.47302097 -0.3890022 0 7
0.94028831 -0.50748408 -0.38893402 0 8
1.0116894 -0.54602003 -0.38841426 0 9
1.1051116 -0.59644103 -0.39196509 0 10
1.1757743 -0.63457853 -0.38314128 0 11
1.3055347 -0.70461166 -0.38829789 0 12
1.447476 -0.78121895 -0.38984916 0 13
1.6118516 -0.86993426 -0.38933393 0 14
1.8251349 -0.98504561 -0.39063793 0 15
2.0867858 -1.1262616 -0.38972902 0 16
2.44222 -1.3180934 -0.39001366 0 17
2.952183 -1.593326 -0.39207593 0 18
3.6810131 -1.9866838 -0.39043465 0 19
5.57548 -3.0091488 -0.44292441 0 20
8.3646173 -4.5144773 -0.44250762 0 21
8.5509167 -4.615025 -0.22592044 0 22
8.5432148 -4.6108685 0.00027714975 0 23
8.5454674 -4.6120839 0.2263312 0 24
8.5485935 -4.613771 0.45279625 0 25
8.5261412 -4.6016531 0.67788517 0 26
8.5389032 -4.608541 0.90625608 0 27
8.5487928 -4.6138787 1.1359173 0 28
8.53547 -4.6066885 1.3636484 0 29
8.5350285 -4.6064501 1.5945742 0 30
8.5534039 -4.6163673 1.83128 0 31
0.77609086 -0.40459824 -0.38971561 0 5
0.83400917 -0.43479267 -0.39283261 0 6
0.88198978 -0.45980632 -0.38850051 0 7
0.96700346 -0.50412637 -0.39695191 0 8
1.0230899 -0.53336585 -0.38981339 0 9
1.1204875 -0.58414191 -0.39440572 0 10
1.2070357 -0.62926197 -0.39034629 0 11
1.3127768 -0.6843878 -0.38749176 0 12
1.4659524 -0.76424265 -0.39183217 0 13
1.628823 -0.84915173 -0.3904506 0 14
1.845138 -0.96192282 -0.39192531 0 15
2.1016884 -1.0956697 -0.3895365 0 16
2.4732311 -1.2893656 -0.39197171 0 17
2.9634907 -1.5449518 -0.39059389 0 18
3.7238111 -1.9413285 -0.39197972 0 19
5.6327724 -2.9365244 -0.44408336 0 20
8.4298925 -4.3947425 -0.4425799 0 21
8.5601625 -4.462656 -0.22445014 0 22
8.5477276 -4.4561729 0.00027519389 0 23
8.5516949 -4.4582415 0.22477904 0 24
8.5498924 -4.4573016 0.44943178 0 25
8.5322313 -4.4480948 0.67322654 0 26
8.5493746 -4.4570317 0.90048856 0 27
8.5456991 -4.4551158 1.1268977 0 28
8.5570059 -4.46101 1.3567247 0 29
8.5391159 -4.4516835 1.5832434 0 30
8.5389328 -4.4515882 1.8143219 0 31
0.78804499 -0.39655891 -0.39282116 0 5
0.85285366 -0.42917183 -0.39876762 0 6
0.9047038 -0.45526379 -0.39558801 0 7
0.94246197 -0.47426441 -0.38404521 0 8
1.0349118 -0.52078682 -0.39143074 0 9
1.124959 -0.5661003 -0.39308056 0 10
1.2118222 -0.60981143 -0.38902497 0 11
1.3364375 -0.67252022 -0.39158756 0 12
1.4702318 -0.73984796 -0.39009884 0 13
1.6392713 -0.82491177 -0.39007816 0 14
1.851698 -0.93180889 -0.39043906 0 15
2.1223702 -1.0680162 -0.39048976 0 16
2.4788642 -1.2474107 -0.38998815 0 17
2.9830055 -1.5011039 -0.39028746 0 18
3.7232239 -1.8735955 -0.38904852 0 19
5.6627135 -2.8495827 -0.44317529 0 20
8.4959269 -4.2753086 -0.44278112 0 21
8.5510654 -4.3030553 -0.22257006 0 22
8.5570936 -4.3060889 0.00027347842 0 23
8.559104 -4.3071008 0.22332668 0 24
8.5651112 -4.3101234 0.44693545 0 25
8.5374308 -4.2961941 0.66870481 0 26
8.5433807 -4.2991881 0.893269 0 27
8.5475483 -4.3012853 1.1188893 0 28
8.5458937 -4.3004527 1.3450427 0 29
8.5504332 -4.3027372 1.5737348 0 30
8.547554 -4.3012886 1.8028569 0 31
0.75034839 -0.36419541 -0.39489719 0 4
0.78503281 -0.38103011 -0.38855484 0 5
0.84106737 -0.40822753 -0.39047822 0 6
0.89914823 -0.43641815 -0.39038098 0 7
0.95858657 -0.46526766 -0.38785601 0 8
1.0388902 -0.50424451 -0.39015925 0 9
1.1253756 -0.54622173 -0.39044785 0 10
1.2161087 -0.59026068 -0.38764274 0 11
1.3418474 -0.65129036 -0.39039478 0 12
1.4754567 -0.71614009 -0.3887192 0 13
1.6591814 -0.80531418 -0.39202642 0 14
1.865612 -0.90550917 -0.39059359 0 15
2.1407802 -1.0390671 -0.39109409 0 16
2.4999466 -1.2133951 -0.39052609 0 17
3.0222728 -1.4669158 -0.39263126 0 18
3.7730253 -1.8313073 -0.39146686 0 19
5.6962385 -2.7647743 -0.4426493 0 20
8.5471573 -4.14852 -0.44230378 0 21
8.5433187 -4.146657 -0.22079732 0 22
8.5424414 -4.1462312 0.00027108123 0 23
8.5580235 -4.1537943 0.2217208 0 24
8.5550604 -4.1523561 0.44325694 0 25
8.5569706 -4.1532831 0.66549987 0 26
8.551712 -4.1507311 0.88782269 0 27
8.5547943 -4.1522269 1.1119257 0 28
8.5551357 -4.1523929 1.3369838 0 29
8.5576916 -4.1536331 1.5639422 0 30
8.5510159 -4.150393 1.7908441 0 31
0.7465803 -0.34922418 -0.39023721 0 4
0.81422484 -0.38086596 -0.40025795 0 5
0.84445882 -0.39500836 -0.38938177 0 6
0.89484674 -0.41857806 -0.38586652 0 7
0.971174 -0.4542813 -0.39027193 0 8
1.069037 -0.50005817 -0.39874578 0 9
1.13667 -0.53169453 -0.39167967 0 10
1.2357335 -0.57803297 -0.39121473 0 11
1.3431287 -0.62826872 -0.38810533 0 12
1.4913222 -0.69758844 -0.39022228 0 13
1.663749 -0.77824366 -0.39042747 0 14
1.8714969 -0.87542093 -0.38915622 0 15
2.1529658 -1.0070822 -0.39064059 0 16
2.5209355 -1.1792057 -0.39112195 0 17
3.0282702 -1.416519 -0.39073014 0 18
3.7887213 -1.7722315 -0.39041725 0 19
5.7395072 -2.684741 -0.44297308 0 20
8.60707 -4.0260868 -0.44236973 0 21
8.7031078 -4.0710101 -0.22339457 0 22
8.69592 -4.0676475 0.00027407162 0 23
8.7153254 -4.076725 0.22425786 0 24
8.7168236 -4.077426 0.44856131 0 25
8.7130146 -4.075644 0.67301923 0 26
8.7058249 -4.0722809 0.89766479 0 27
8.7100592 -4.0742617 1.1243937 0 28
8.7076244 -4.0731225 1.3515434 0 29
8.717227 -4.0776148 1.5822443 0 30
8.6944427 -4.066957 1.8084767 0 31
0.7432031 -0.33473605 -0.38592213 0 4
0.7995736 -0.36012509 -0.39047575 0 5
0.84956342 -0.38264033 -0.38916424 0 6
0.91019255 -0.40994748 -0.38990763 0 7
0.97813046 -0.44054648 -0.39048746 0 8
1.06208 -0.47835708 -0.39355066 0 9
1.1317884 -0.50975347 -0.38743773 0 10
1.2328956 -0.55529177 -0.38775435 0 11
1.3674823 -0.61590916 -0.39254886 0 12
1.5102692 -0.68021983 -0.39258617 0 13
1.6652207 -0.75000954 -0.38820794 0 14
1.9023266 -0.85680109 -0.3929705 0 15
2.1755104 -0.97984213 -0.39214027 0 16
2.5308182 -1.1398715 -0.39007795 0 17
3.0409803 -1.3696468 -0.38979471 0 18
3.8100989 -1.7160549 -0.39004311 0 19
5.7649484 -2.5965123 -0.44201618 0 20
8.6851797 -3.9117742 -0.44345436 0 21
9.0638657 -4.0823331 -0.23112758 0 22
9.0613022 -4.0811782 0.00028371299 0 23
9.0651493 -4.082911 0.23172826 0 24
9.0582037 -4.0797825 0.46306893 0 25
9.059804 -4.0805035 0.6952129 0 26
9.0650358 -4.0828595 0.92856812 0 27
9.0586729 -4.0799937 1.1617211 0 28
9.0605736 -4.0808501 1.3970953 0 29
9.059556 -4.0803919 1.6335864 0 30
9.0706577 -4.085392 1.8743469 0 31
0.75477004 -0.32700476 -0.3894524 0 4
0.80423415 -0.3484351 -0.39027047 0 5
0.85771281 -0.37160477 -0.39041507 0 6
0.91779447 -0.39763519 -0.39068022 0 7
0.99691319 -0.43191344 -0.39547145 0 8
1.0624071 -0.46028876 -0.39118475 0 9
1.1511984 -0.49875766 -0.39159253 0 10
1.2477652 -0.54059529 -0.38995168 0 11
1.3776532 -0.59686935 -0.39297003 0 12
1.5190418 -0.65812612 -0.39237189 0 13
1.6788495 -0.72736287 -0.3889125 0 14
1.9153558 -0.82982945 -0.39316231 0 15
2.1802967 -0.94461536 -0.39052013 0 16
2.5491836 -1.1044359 -0.39042634 0 17
3.06372 -1.3273592 -0.39022842 0 18
3.8349578 -1.6614987 -0.39010769 0 19
5.1316633 -2.2232974 -0.39097449 0 20
8.7288103 -3.781764 -0.44286633 0 21
9.4461946 -4.0925713 -0.2393551 0 22
9.4632025 -4.0999398 0.00029442468 0 23
9.4352388 -4.0878253 0.23966494 0 24
9.4335337 -4.0870862 0.47920957 0 25
9.2609253 -4.0123038 0.70615649 0 26
9.2618418 -4.0127006 0.942734 0 27
9.252923 -4.0088367 1.1791358 0 28
9.2599134 -4.0118651 1.4188119 0 29
9.2747202 -4.01828 1.6618183 0 30
9.269371 -4.0159626 1.9033077 0 31
0.77002615 -0.320575 -0.39491069 0 4
0.81244016 -0.33823267 -0.39185756 0 5
0.8654213 -0.3602896 -0.39153081 0 6
0.92057234 -0.38324991 -0.3894822 0 7
0.99598944 -0.41464734 -0.39270481 0 8
1.0755526 -0.44777083 -0.39361918 0 9
1.1676352 -0.48610643 -0.39477086 0 10
1.2519186 -0.52119499 -0.38887289 0 11
1.3769846 -0.5732621 -0.39039326 0 12
1.5240428 -0.63448495 -0.39127222 0 13
1.7048607 -0.70976251 -0.39253891 0 14
1.9160177 -0.79767072 -0.39090893 0 15
2.2052372 -0.91807777 -0.39258778 0 16
2.5651281 -1.0679065 -0.39048174 0 17
3.0881543 -1.2856512 -0.39095119 0 18
3.8556948 -1.6051913 -0.38983446 0 19
5.1720386 -2.1532078 -0.39165685 0 20
8.7847242 -3.6572299 -0.44299561 0 21
9.8481731 -4.0999618 -0.24802484 0 22
9.8428383 -4.0977407 0.0003043758 0 23
9.8476343 -4.0997376 0.24862064 0 24
9.8549547 -4.1027851 0.497576 0 25
9.6657038 -4.0239968 0.732544 0 26
9.6674404 -4.0247197 0.97804081 0 27
9.6465302 -4.0160146 1.2218269 0 28
9.6603336 -4.0217614 1.4711728 0 29
9.6597071 -4.0215001 1.7202848 0 30
9.6582804 -4.0209064 1.9711162 0 31
0.77704251 -0.31049395 -0.39618379 0 4
0.80926812 -0.32337081 -0.38805014 0 5
0.85633624 -0.34217849 -0.38516006 0 6
0.92413914 -0.36927149 -0.3887099 0 7
0.98940623 -0.39535117 -0.38783294 0 8
1.0702387 -0.42765054 -0.3893891 0 9
1.157807 -0.46264145 -0.38916394 0 10
1.2737442 -0.50896817 -0.39334387 0 11
1.3897408 -0.55531859 -0.39171085 0 12
1.5229353 -0.60854101 -0.38870654 0 13
1.7052071 -0.68137395 -0.39032781 0 14
1.9356259 -0.77344567 -0.39260522 0 15
2.2079849 -0.88227612 -0.39078346 0 16
2.5825939 -1.0319639 -0.39084661 0 17
3.102119 -1.239558 -0.39042762 0 18
3.8913486 -1.5549216 -0.39114365 0 19
5.2031064 -2.0790796 -0.39171052 0 20
8.8196306 -3.5241857 -0.44216082 0 21
10.301797 -4.116436 -0.25793546 0 22
10.294542 -4.1135373 0.00031648666 0 23
10.287836 -4.1108575 0.2582188 0 24
10.093266 -4.0331101 0.50663483 0 25
10.092588 -4.0328398 0.76043373 0 26
10.095074 -4.033833 1.0153449 0 27
10.090851 -4.0321455 1.2706469 0 28
10.103187 -4.0370746 1.5296373 0 29
10.084065 -4.0294342 1.7853799 0 30
10.084126 -4.029458 2.0460167 0 31
0.76852518 -0.29437765 -0.38964781 0 4
0.81761563 -0.31318137 -0.38985834 0 5
0.87676769 -0.33583912 -0.39214227 0 6
0.94251341 -0.3610225 -0.3942194 0 7
1.0021576 -0.38386872 -0.39063239 0 8
1.0790377 -0.41331708 -0.39039296 0 9
1.1652336 -0.44633374 -0.38946787 0 10
1.2781 -0.48956636 -0.39247972 0 11
1.3968971 -0.53507066 -0.39152399 0 12
1.5322591 -0.58692002 -0.38889721 0 13
1.7121626 -0.65583074 -0.38972619 0 14
1.9354787 -0.7413702 -0.39037791 0 15
2.2126756 -0.84754837 -0.38942155 0 16
2.5977149 -0.99503469 -0.39093441 0 17
3.1222377 -1.1959491 -0.39076012 0 18
3.9119375 -1.4984375 -0.39101216 0 19
5.2341676 -2.0049074 -0.3918432 0 20
8.881115 -3.4018426 -0.44275099 0 21
10.772966 -4.1265016 -0.26822272 0 22
10.76142 -4.1220794 0.00032898807 0 23
10.771579 -4.1259704 0.26884711 0 24
10.551081 -4.0415101 0.52665043 0 25
10.563808 -4.0463853 0.79148287 0 26
10.555964 -4.0433803 1.0557574 0 27
10.559701 -4.0448122 1.3222419 0 28
10.551497 -4.0416694 1.5885701 0 29
10.553427 -4.0424089 1.8580211 0 30
10.288858 -3.9410677 2.0758708 0 31
0.77854723 -0.28547856 -0.39261219 0 4
0.83012742 -0.30439207 -0.39370149 0 5
0.88536662 -0.32464722 -0.3938646 0 6
0.93537462 -0.34298423 -0.38913536 0 7
1.0097935 -0.37027222 -0.39149797 0 8
1.0800385 -0.39602974 -0.38865951 0 9
1.1890787 -0.43601272 -0.39530647 0 10
1.2787111 -0.46887922 -0.39056155 0 11
1.4140472 -0.51850444 -0.39420539 0 12
1.5492772 -0.56809068 -0.39110774 0 13
1.7261653 -0.63295221 -0.39080638 0 14
1.9481238 -0.71434021 -0.39082119 0 15
2.2365808 -0.82011193 -0.39151782 0 16
2.6211717 -0.9611342 -0.39234903 0 17
3.1292627 -1.1474416 -0.38953906 0 18
3.9339528 -1.4425063 -0.39110395 0 19
5.2567062 -1.9275349 -0.3914201 0 20
8.9328594 -3.275511 -0.44294241 0 21
11.265634 -4.1308951 -0.27898481 0 22
11.287778 -4.1390152 0.00034322875 0 23
11.287019 -4.1387367 0.2802012 0 24
11.057461 -4.0545621 0.54896623 0 25
11.066676 -4.057941 0.82471305 0 26
11.050433 -4.0519853 1.0992848 0 27
11.055867 -4.053978 1.3769456 0 28
11.06354 -4.0567913 1.6567277 0 29
11.060987 -4.0558553 1.936938 0 30
10.34299 -3.7925789 2.0756013 0 31
0.7932685 -0.27803361 -0.39798355 0 4
0.83009231 -0.29094005 -0.39166501 0 5
0.89022529 -0.31201613 -0.39399418 0 6
0.9531166 -0.33405897 -0.39448202 0 7
1.0321892 -0.36177322 -0.39812765 0 8
1.1007079 -0.38578841 -0.39406532 0 9
1.1905413 -0.41727424 -0.39376208 0 10
1.2991097 -0.4553265 -0.39475617 0 11
1.4121444 -0.49494416 -0.39165518 0 12
1.5521526 -0.54401582 -0.38982329 0 13
1.7373983 -0.60894275 -0.39133143 0 14
1.9543242 -0.68497342 -0.39005354 0 15
2.2484698 -0.78806889 -0.39157963 0 16
2.6342909 -0.92329574 -0.3922897 0 17
3.1610539 -1.1079216 -0.39147764 0 18
3.9379048 -1.3802009 -0.38948822 0 19
5.277472 -1.8497074 -0.39095017 0 20
8.9704494 -3.1440635 -0.44252419 0 21
15.871956 -5.5629807 -0.39104027 0 22
15.044136 -5.2728367 0.00045510181 0 23
15.042034 -5.2721004 0.37150389 0 24
22.932119 -8.0375061 1.7001842 0 26
20.840931 -7.3045621 2.0625956 0 27
20.612087 -7.2243547 2.5539479 0 28
20.061413 -7.0313482 2.9887156 0 29
11.912334 -4.175168 2.0753188 0 30
10.48427 -3.674644 2.0931585 0 31
0.79035616 -0.26434508 -0.3945792 0 4
0.82082373 -0.27453536 -0.3853938 0 5
0.87668431 -0.29321867 -0.38609976 0 6
0.94201905 -0.31507075 -0.3879782 0 7
1.0187168 -0.34072331 -0.39100555 0 8
1.0924484 -0.3653838 -0.3891916 0 9
1.1872251 -0.39708316 -0.39074093 0 10
1.3010167 -0.43514225 -0.39339823 0 11
1.4148966 -0.4732309 -0.39049536 0 12
1.56276 -0.52268577 -0.39056388 0 13
1.7366706 -0.58085245 -0.38925055 0 14
1.9737167 -0.66013569 -0.39199352 0 15
2.2644308 -0.75736886 -0.39242667 0 16
2.6354995 -0.88147771 -0.39054632 0 17
3.1663404 -1.0590245 -0.3902106 0 18
3.973933 -1.3291345 -0.39112544 0 19
5.3067241 -1.7749041 -0.39119062 0 20
9.0248613 -3.0184844 -0.4430266 0 21
15.947982 -5.3340135 -0.39098778 0 22
15.041892 -5.0309601 0.00045280394 0 23
15.052237 -5.03442 0.36993402 0 24
26.829557 -8.9735003 1.3186704 0 25
24.652393 -8.2453194 1.8187679 0 26
20.813782 -6.9614449 2.049814 0 27
21.493092 -7.1886487 2.6500578 0 28
20.635202 -6.9017167 3.0591323 0 29
11.960358 -4.0002999 2.0734737 0 30
21.921055 -7.3317866 4.3550363 0 31
0.7949748 -0.25326973 -0.39503041 0 4
0.83340096 -0.26551184 -0.38947055 0 5
0.89886689 -0.28636855 -0.39401931 0 6
0.95872962 -0.3054401 -0.39301541 0 7
1.0401462 -0.33137852 -0.39736506 0 8
1.1024153 -0.35121667 -0.39090711 0 9
1.1925385 -0.37992892 -0.39065561 0 10
1.3074992 -0.41655406 -0.39351094 0 11
1.4261104 -0.45434219 -0.39175099 0 12
1.5667832 -0.49915892 -0.38973957 0 13
1.7515066 -0.55800962 -0.39074132 0 14
1.9823086 -0.63154048 -0.39186019 0 15
2.2725379 -0.72400415 -0.39199126 0 16
2.6424425 -0.84185147 -0.38974538 0 17
3.1768315 -1.0121015 -0.38967401 0 18
3.9935844 -1.2723095 -0.39122286 0 19
5.3332629 -1.6991155 -0.39130977 0 20
9.0754185 -2.8913229 -0.44342661 0 21
16.012119 -5.101275 -0.39072576 0 22
15.060754 -4.7981811 0.00045125315 0 23
15.054141 -4.7960744 0.36825192 0 24
27.302771 -8.6983452 1.335658 0 25
24.343554 -7.7555733 1.7875903 0 26
20.790182 -6.6235104 2.0379219 0 27
21.624592 -6.8893433 2.6538124 0 28
20.5182 -6.5368595 3.0275726 0 29
12.01451 -3.8276832 2.0731285 0 30
23.238209 -7.4034233 4.5951409 0 31
0.7991302 -0.24202295 -0.39532927 0 4
0.83999777 -0.25440001 -0.3908076 0 5
0.88687587 -0.26859742 -0.38703409 0 6
0.96130002 -0.29113737 -0.39231655 0 7
1.0354793 -0.31360313 -0.39382285 0 8
1.110454 -0.33630982 -0.3920064 0 9
1.2075771 -0.36572435 -0.39382273 0 10
1.3061446 -0.3955763 -0.39135501 0 11
1.4172326 -0.4292202 -0.3875809 0 12
1.5729239 -0.47637254 -0.38952702 0 13
1.765907 -0.53481901 -0.39220187 0 14
1.9724933 -0.59738529 -0.3881858 0 15
2.2657423 -0.68619812 -0.389081 0 16
2.6614001 -0.80602622 -0.39079577 0 17
3.2007365 -0.96936852 -0.3908602 0 18
4.0117111 -1.2149786 -0.39125082 0 19
5.3374686 -1.6164949 -0.38987672 0 20
9.0973301 -2.7551987 -0.44252038 0 21
16.083591 -4.8710437 -0.39072442 0 22
14.88466 -4.5079379 0.0004439936 0 23
15.040341 -4.5550871 0.36627811 0 24
15.04199 -4.5555863 0.73258513 0 25
23.582512 -7.1421514 1.7240041 0 26
21.335983 -6.461772 2.0821218 0 27
21.812284 -6.6060238 2.6649415 0 28
20.541834 -6.2212577 3.0175798 0 29
19.744225 -5.9796958 3.3917553 0 30
23.10375 -6.9971547 4.5482349 0 31
0.79854208 -0.22939213 -0.39336982 0 4
0.83623517 -0.24021998 -0.38741386 0 5
0.89947778 -0.25838727 -0.39087567 0 6
0.95990348 -0.27574539 -0.39009205 0 7
1.0315528 -0.29632762 -0.39067245 0 8
1.107003 -0.31800172 -0.38913763 0 9
1.2058153 -0.34638694 -0.39158726 0 10
1.3157687 -0.37797251 -0.39257351 0 11
1.4423594 -0.41433743 -0.3927865 0 12
1.5819029 -0.45442319 -0.39009601 0 13
1.7625737 -0.50632334 -0.38980818 0 14
1.9955812 -0.57325792 -0.39107072 0 15
2.3050051 -0.66214418 -0.39415151 0 16
2.6622128 -0.76475704 -0.38926405 0 17
3.213017 -0.92298299 -0.39070266 0 18
4.034307 -1.1589098 -0.39179274 0 19
5.3589406 -1.5394288 -0.38979185 0 20
9.1380186 -2.6250207 -0.44262221 0 21
15.030612 -4.3177485 -0.36360177 0 22
14.857096 -4.2679033 0.00044129961 0 23
15.040912 -4.3207073 0.36474493 0 24
15.041698 -4.3209329 0.72947681 0 25
